# .PCD v0.7 - Point Cloud Data file format
VERSION 0.7
FIELDS x y z intensity
SIZE 4 4 4 4
TYPE F F F F
COUNT 1 1 1 1
WIDTH 1389
HEIGHT 1
VIEWPOINT 0 0 0 1 0 0 0
POINTS 1389
DATA ascii
-0.67344952 6.912467 -0.75284719 4.5
-0.95199203 6.7725754 -0.70454323 2
-12.015558 13.019939 -0.89867842 1
-1.0036831 6.4275026 -0.85664678 11
14.692358 -3.1921101 -0.56496251 7
-12.947636 12.580029 -0.89564359 1
14.174606 -3.5950871 -0.57497668 11
8.23349 -0.60269547 -0.70678759 1
12.250418 -4.6232967 -0.60164845 3
8.2838039 -2.5061417 -0.6595484 5
2.0338626 1.1328812 -0.80246997 5
1.8324904 1.1610432 -0.70534384 6
5.4651341 -1.6444149 -0.62240577 4
5.3635049 -1.7384663 -0.74553883 3
-17.68083 10.34641 -0.97323239 2
-13.516329 4.6511307 -1.020051 5
-9.157835 1.7296448 -0.97308898 5
-9.5380783 1.9007149 -0.93172157 18
-9.9595795 1.6827393 -1.0081942 5
1.3039746 -5.7275448 -0.68966472 6
-1.6442571 -5.0483932 -0.82564652 5
-3.9070251 -4.2725182 -0.89027357 8
-5.4732418 -3.8177223 -0.96127129 3
-5.6713877 -3.6163082 -0.83669436 6
-14.57456 1.6367931 -1.1229178 7
-7.625926 -2.9172726 -0.91218626 6
-9.3889656 -2.5074368 -1.0032778 3
-9.7709751 -2.3371983 -0.94909608 3
-11.598972 -1.4850121 -1.0309019 7
-15.020721 0.44019508 -1.0863405 4
-10.495919 -2.508688 -1.0403408 3
-13.344027 -0.94059372 -0.95722067 6
-13.72496 -0.76312828 -1.0823982 4
-15.041403 -0.20397186 -0.99626207 31
-12.694527 -2.0119915 -1.0978225 5
-14.866207 -0.85065651 -1.0141388 31
-17.013468 0.17781448 -1.0670992 7
1.8226166 -11.907272 -0.75703001 4
-28.479027 3.8066883 -1.2156039 4
-29.590302 4.3602934 -1.255772 4
-7.4081783 -11.144466 -0.89230347 4
-29.711222 0.023601532 -1.3430902 4
-28.74201 -4.8061543 -1.4090863 5
-28.630571 -9.5153866 -1.3104271 7
-1.0381999 54.339703 -0.30254665 7
-1.871708 53.495274 -0.30673316 7
-3.0308869 52.772945 -0.31877577 6
-4.1671028 52.374592 -0.33511618 6
-5.5602317 52.97617 -0.36979684 6
-1.2223246 46.971027 -0.38985887 4
-3.5582659 46.767895 -0.42787454 4
-4.175766 45.983459 -0.42512444 4
-5.287292 45.766228 -0.44301817 4
-4.983716 43.7883 -0.55910754 3
-1.0889654 39.515541 -0.38504216 54
5.42489 35.268551 -0.33639356 7
-1.4255049 39.394623 -0.52054548 3
5.7615447 34.677979 -0.31975648 12
2.6381922 36.018063 -0.3731688 2
2.1394496 36.339516 -0.38661131 2
0.99174023 36.468414 -0.40175804 7
20.635437 24.697197 -0.12117925 3
7.8727221 31.758028 -0.35791558 3
7.4744611 31.989021 -0.36219612 3
-4.9126339 39.287575 -0.58049226 3
8.4882812 31.149239 -0.34548849 3
12.423779 28.61754 -0.21265331 2
9.5722141 30.275877 -0.33234364 3
9.0995026 30.648209 -0.3373495 5
9.9245834 29.971199 -0.32846698 1
-10.643919 41.691292 -0.64173162 3
1.4586282 34.489517 -0.44777927 3
15.281263 26.095629 -0.086654395 2
13.016115 27.253256 -0.19797954 2
11.500086 28.348797 -0.31144145 1
15.366587 25.63726 -0.083636492 4
11.888027 27.890991 -0.30779156 2
0.69032526 34.337719 -0.44898018 3
12.503183 27.181034 -0.30383742 2
7.2871079 29.522427 -0.39244929 2
6.9200616 29.814651 -0.39759287 2
22.027143 20.336937 -0.12610212 7
2.7029529 31.793951 -0.35028806 9
22.127523 20.263908 0.024676234 3
2.4456015 31.607111 -0.43943974 11
2.2522264 31.893543 -0.35521024 13
14.323729 23.884983 -0.28891671 10
14.574635 23.39554 -0.23231807 4
4.4969125 29.217327 -0.26988029 15
4.4467854 29.228111 -0.40109858 32.5
-9.2410412 36.952003 -0.61685431 2
16.203354 21.646955 -0.18965125 2
7.3432908 26.637783 -0.22339699 5
7.6234517 26.327873 -0.34990501 12
7.5786042 26.360928 -0.21996424 13
7.3213601 26.5464 -0.35047844 15
-9.8492851 36.444054 -0.61972237 5
-8.9058723 34.270264 -0.63731408 3
-14.533033 36.272873 -0.63730788 5
-8.1702957 32.415634 -0.64735198 2
14.62697 18.110023 -0.26822481 28
14.660217 17.656376 -0.16316891 10
-13.88579 34.383568 -0.69631767 5
-14.789545 32.918617 -0.69384539 4
18.955488 10.183275 -0.16168344 9
12.624825 13.722115 -0.34993833 1
12.507433 13.334921 -0.3038922 2.5
18.204439 8.633625 -0.17640153 9
-21.408028 31.446295 -0.80956709 5
7.08886 13.847635 -0.36199501 2.5
7.049273 13.777988 -0.45876572 5
6.9980788 13.386464 -0.33570018 2
6.9823413 13.439825 -0.4311913 2.5
-22.019852 30.093685 -0.81734145 2
5.184689 13.704401 -0.42524067 2
5.0214648 13.30027 -0.428929 3.5
-19.058767 27.522444 -0.77001774 4
3.9224467 13.144814 -0.42689982 2
3.8710632 13.10753 -0.52263951 2
-22.681616 28.548733 -0.8279103 2
-19.465864 26.301033 -0.77195787 2
-19.707865 25.917646 -0.77877557 2
-16.725639 23.420063 -0.77315748 4
2.2946024 12.006289 -0.39728186 12
-18.346218 24.261959 -0.78797221 4
-23.708403 27.316263 -0.8610847 2
2.3320618 11.84549 -0.49745527 1
-20.412254 24.824955 -0.80105972 2
-20.631592 24.427515 -0.80807638 2
6.3616099 7.9740162 -0.41887006 3
6.2481618 8.0130434 -0.49143419 4
1.0026736 10.882001 -0.45908353 3.5
-20.75242 23.700932 -0.80755448 2
-24.235689 25.819298 -0.87284625 2
6.0173516 7.7926683 -0.34279472 1
6.0056043 7.8019686 -0.41844752 1
5.7780948 8.0081701 -0.48007998 1
0.93961191 10.840628 -0.60912168 4
0.66140413 10.64978 -0.51763487 3
-17.292494 21.23399 -0.77868545 3
0.6363883 10.595701 -0.51123405 1
-24.924103 25.081175 -0.89948452 2
-19.249119 21.120384 -0.80669773 4
-21.226677 21.890064 -0.81959057 2
-0.024436951 9.2476416 -0.5592345 2
-25.17646 24.153633 -0.90612769 2
-0.75873685 9.3810806 -0.58156669 18
-0.3938632 9.0882969 -0.61432922 4
-0.4118433 9.1195402 -0.51561058 8
-21.498474 21.03047 -0.83009124 2
-19.618488 19.634975 -0.82143307 3
-25.367649 22.556393 -0.90889382 2
15.455538 -1.9657364 -0.299799 7
-25.451721 22.010445 -0.91146672 2
-0.609308 6.9094038 -0.54571128 2
-25.478369 21.458267 -0.91170716 2
-1.0380075 6.7896891 -0.58385801 2
-1.6030586 6.7138405 -0.53018475 4
-14.439707 14.111365 -0.86325252 2
-25.756762 20.796036 -0.92420256 2
14.277903 -3.1445751 -0.32843611 11
-26.190613 20.386784 -0.94469941 2
-15.273533 13.786335 -0.87262428 0
-21.967886 17.86499 -0.85327899 2
14.159002 -4.009901 -0.27027845 11
14.156668 -4.0029621 -0.42908093 7
-16.067841 13.866781 -0.86112428 1
-0.83996248 4.7239714 -0.55515921 3.5
12.448198 -3.5393772 -0.34172234 47.5
-14.015354 11.894577 -0.88793266 2
-25.59358 18.422588 -0.91854239 2
-17.73834 13.598978 -0.90825808 3
-22.304766 16.061996 -0.87888479 2
-14.881994 11.408943 -0.90351295 0
8.4784679 -2.4878712 -0.52647686 3
-18.419619 13.398664 -0.8710072 2
-26.141485 17.915174 -0.94619823 2
1.640573 0.98831749 -0.61931968 1
-15.969095 11.215147 -0.91477692 1
5.4891877 -1.6458607 -0.50245762 7
-26.368568 17.129702 -0.95994699 2
-20.62776 12.604694 -0.92302275 1
-26.767439 16.089132 -0.98409212 2
-26.77364 15.199156 -0.9897567 3
-18.479355 9.8020353 -0.94559991 1
-22.998396 12.469519 -0.94855726 2
-27.209345 14.020227 -1.0192164 3
-27.77947 13.354257 -1.0520085 3
-17.571861 7.0528078 -0.96830177 3
-20.502596 8.6564798 -0.98829174 1
-27.580139 12.697762 -1.0484904 3
-27.663523 11.817715 -1.0612649 3
-0.60036063 -4.9195213 -0.68232596 8
-29.653753 11.983551 -0.99980533 3
-19.344131 5.2599792 -1.0127132 4
-23.313059 7.7446032 -1.0395564 2
-4.0628057 -4.3946285 -0.59310293 2
-5.7453699 -3.5859222 -0.71869659 7
-22.977962 6.5607481 -1.0464579 2
-5.6391468 -3.9025097 -0.6088115 2
-7.9286118 -2.984478 -0.74829996 2
-9.3845997 -2.4793568 -0.76898813 4
-9.7768593 -2.3234596 -0.77451587 4
-10.388148 -2.3946285 -0.79559243 2
-13.314756 -0.87685394 -0.83704484 7
-22.096159 3.7572765 -1.0677174 3
-15.482004 -0.46267128 -0.84316874 2
-15.023262 -0.82026291 -0.77681482 111
-21.839808 3.0669594 -1.0730382 3
-21.610884 2.4402952 -1.0787102 3
0.62881184 -12.12738 -0.60634673 4
-37.502781 9.3613434 -1.1499792 6
-6.2527113 -10.334379 -0.68127143 3
-31.462503 3.3567591 -1.1777295 5
-7.3096514 -11.122829 -0.72600448 4
-28.738796 -4.2023506 -1.2043432 5
-5.6488481 57.455547 -0.19048408 8
-0.95475507 39.391754 -0.11291176 7
12.300911 28.532387 0.021722019 3
12.197126 28.193199 -0.089677364 2
12.276863 27.752747 0.02860564 5
-10.963636 41.469845 -0.34344697 6
15.230133 25.739162 0.038866848 6
13.678955 26.779533 0.035098433 2
13.575052 26.709858 -0.080715299 2
-10.859613 41.12616 -0.48540106 3
11.994467 26.997517 -0.019675672 2.5
23.731922 19.901926 0.17758787 26
2.7662168 31.779739 -0.20604709 5.5
2.2596021 31.903034 -0.21255949 9.5
20.410902 20.964952 0.17470062 2
-11.844805 39.654587 -0.48552278 6
14.522192 23.958408 -0.065468937 2
14.311964 23.732065 0.050283939 11
14.554663 23.388617 -0.0058037341 5.5
4.4079299 29.263599 -0.14014956 17.5
16.151276 21.714771 0.049027443 4
7.4894929 26.836168 -0.14160845 3
16.121286 21.699694 -0.069906652 4
7.4627919 26.74873 -0.052331865 4
7.6258502 26.327274 -0.13324115 6
7.5956483 26.30912 -0.046349734 15
-14.666529 36.354267 -0.5115267 7
14.725758 18.178392 0.051833391 3
14.650826 18.104839 -0.055151194 16
14.618553 17.720428 0.050874561 98
19.393217 11.600798 0.057167441 15
18.969021 10.182293 -0.024649501 8
12.456127 13.512115 -0.15700042 8
18.617685 9.6072359 0.1057151 7
22.106947 6.5981712 0.082122803 3
18.22776 8.6235199 -0.040881485 5
9.5000591 13.419224 -0.19174233 5
-21.540497 31.657631 -0.54562628 7
9.4504032 13.231214 -0.11474125 3
22.094324 5.5536079 0.070173025 11
7.0940003 13.804325 -0.26592761 4
7.0743785 13.768785 -0.20132419 7
7.0164351 13.478986 -0.20475134 3.3333333
5.145165 13.659445 -0.26187363 4.3333335
5.0859303 13.376306 -0.18502191 1.5
5.0278707 13.31353 -0.29316312 2
3.834826 13.054996 -0.23175648 4
-26.148792 29.952936 -0.68924272 6
-27.189919 29.917477 -0.72446406 3
2.5052471 12.193382 -0.28611347 11
2.3937449 11.995996 -0.24671626 5
2.3239346 11.918023 -0.3144955 4
-25.146729 27.603989 -0.78691518 3
-25.37908 27.154812 -0.79363406 3
6.1746736 8.0704584 -0.18348843 11
-29.944128 29.48003 -0.81749701 4
6.3006797 7.968627 -0.26400402 3
5.8516297 7.8788185 -0.22408798 1
1.0475392 10.777357 -0.29304293 0
0.96412706 10.820869 -0.28861988 1.5
-25.9053 26.56382 -0.81168985 3
0.73287535 10.652397 -0.27197298 2
0.65697241 10.648664 -0.33541745 5
-30.081661 28.644747 -0.82004452 4
19.429035 -0.65906715 -0.023950785 8
-26.287088 25.253094 -0.82172644 3
-0.013144493 9.2088976 -0.36963525 2
-30.56654 27.311035 -0.83425105 4
-0.35291362 9.1823826 -0.36887708 9
-0.37212276 9.2295494 -0.41281351 13
-0.36890888 9.0894279 -0.32615885 2
-0.75598264 9.342083 -0.35636452 1
-35.613972 29.326832 -0.81457806 6
-30.803108 25.796322 -0.84073591 4
-26.905293 23.150242 -0.84178495 3
16.41625 -3.1696987 -0.081455797 7
-0.66504216 6.8501139 -0.37045214 5
-0.7514658 6.9665184 -0.45284286 10
-27.501942 22.600155 -0.86581159 3
-0.9921329 6.7564011 -0.40697697 2.3333333
14.944893 -2.772707 -0.084308803 10
-27.546825 22.086489 -0.86735225 3
-1.5066097 6.7608986 -0.34972867 8
-30.769398 23.720667 -0.83909166 3
-27.680265 21.585409 -0.87282825 3
-31.132446 23.208994 -0.85236692 3
-0.52455521 4.8249502 -0.36977711 9
14.652258 -4.2831039 -0.11325184 11
-30.601988 22.38434 -0.83410561 3
-0.83873653 4.6795855 -0.45071432 1
12.520887 -3.4980659 -0.11554699 65
-1.4409938 4.6641216 -0.38389006 5
-36.860146 25.574432 -0.85605633 6
-37.312981 24.317345 -0.87220168 6
-31.417471 18.893974 -0.87144756 3
-29.018002 13.280828 -0.96233809 3
-32.747906 14.738569 -0.93913865 4
-39.836983 17.048906 -0.97394907 7
13.443729 -14.504078 -0.1144409 39
-11.698286 -1.5342503 -0.6895293 4
-40.20924 15.144432 -0.9947542 7
-13.383923 -0.93169975 -0.66590536 4
-15.00453 -0.2680645 -0.64129603 10
-38.759396 10.238153 -0.98043227 6
-42.148468 11.959781 -1.0720929 8
-6.0926008 -10.634684 -0.52712739 7
-31.874903 3.5218763 -1.0106863 4
-31.25252 2.981307 -0.99582374 9
-28.859684 -3.4310226 -1.0063351 10
-4.3015904 62.276638 0.068625659 10
-0.93564534 39.471054 0.020187616 6
22.025221 23.594288 0.33480024 7
22.099634 23.038425 0.33432892 7
-10.568571 42.09103 -0.18814003 7
24.264618 21.449062 0.34664285 17
12.224409 28.387032 0.25281516 23
16.235495 25.800919 0.29104167 8
13.817257 26.772083 0.2699194 2
13.704639 26.799381 0.15191367 100
13.092972 27.060444 0.26314837 2
-14.843744 43.53508 -0.29387194 4
12.138083 27.168407 0.25433338 4
-11.222618 40.804291 -0.19438735 10
11.975447 27.145981 0.1433315 1
-15.823631 43.480019 -0.31656104 4
23.814617 19.91143 0.3385669 8
2.7569313 31.780159 -0.014390498 7.5
2.2558622 31.909676 -0.021792829 8.5
-11.960308 39.975903 -0.2058346 7
16.915033 22.145292 0.16956967 2
14.541193 23.378815 0.27655894 9
4.4069839 29.27618 0.034344867 16.5
30.931717 13.276558 0.56103194 6
7.4552798 26.743513 0.07912308 6.5
7.6024985 26.314789 0.083367109 15
-14.659346 36.333794 -0.3140544 52
14.643261 18.109955 0.1587266 6
14.570396 17.780636 0.26363131 12
19.425049 11.663725 0.26356578 13
19.057888 10.487255 0.25193653 12
-19.29154 32.843452 -0.48296455 7
18.626005 9.5946064 0.24142656 9
-20.447868 32.20079 -0.51440108 7
-23.84549 30.795258 -0.47248861 6
-26.71526 29.967325 -0.55354786 3
6.1841474 8.0628242 -0.069872424 2
6.0722089 8.1607342 0.044940501 0
5.9574246 7.7803478 0.038020745 0
5.8118825 7.9135704 -0.072937429 2
-32.547176 30.13736 -0.72383463 5
-0.70546579 9.3723612 -0.12589547 0
-36.019573 28.063412 -0.82753491 6
15.295383 -2.8746033 0.074343115 8
14.797718 -3.182663 0.064884365 7
12.450453 -3.555748 0.033437535 69
12.121944 -4.6165466 0.014708117 11
-41.838058 25.216999 -0.77859676 8
-41.086071 24.22085 -0.76371455 7
-41.59819 21.062618 -0.78855646 7
-42.549889 20.356907 -0.81494474 7
16.111296 -20.325108 0.076732323 18
-38.899441 10.466309 -0.77441812 6
-40.564232 11.22639 -0.81100619 7
-31.761301 3.9314547 -0.82239211 4
-28.869644 -3.2865334 -0.81750584 16
11.016405 -32.984497 -0.14233944 14
-28.644159 -27.535397 -0.85034192 13
-0.7640996 39.631615 0.15731026 8
22.533869 23.835615 0.49748972 3
24.403456 21.573765 0.51415718 4
-10.781578 41.801003 -0.038370371 6
-14.844536 43.515217 -0.12392506 4
23.960077 20.217319 0.50304067 3
-18.293638 45.131397 -0.198149 10
-11.314353 40.776913 -0.048508272 9
2.7589178 31.777723 0.17722704 9.5
2.3034577 31.87265 0.12205876 18
2.2559094 31.912342 0.21671332 11
-12.159033 39.995312 -0.065454081 9
14.378984 23.466125 0.38781881 11
4.4862504 29.201834 0.16654822 29
4.4033952 29.273518 0.25262159 22
7.5037913 26.782188 0.2105549 5
7.4488864 26.740395 0.29772884 9
7.6156316 26.326359 0.25640386 15
20.252611 16.390623 0.43772525 5
-14.714123 36.111443 -0.1179066 7
19.626913 11.793219 0.40465549 2
-18.227663 33.279861 -0.19609448 7
19.086517 10.567536 0.39001241 11
21.622797 5.9502087 0.39297464 11
-26.61738 30.01545 -0.39573541 10
5.8636642 8.2744799 0.19304863 3
5.8314805 8.3042574 0.11926262 3
5.7385039 8.032629 0.18913491 2
-32.514431 30.236319 -0.53678048 100
15.096556 -2.9385071 0.22936119 10
12.531292 -3.5167408 0.1855693 60
12.204861 -4.917841 0.32240832 4
12.037922 -4.9764099 0.16411711 10
14.252546 -9.7311497 0.15266912 10
13.128401 -9.4574909 0.31726384 5
12.500589 -9.6870518 0.30409807 5
-9.5652971 1.9361935 -0.23883083 24
16.01478 -20.475784 0.31697738 11
-6.5708685 -10.561274 -0.2169188 10
-31.79163 3.9184265 -0.64333665 4
-30.118393 0.27795601 -0.63060915 9
-28.864655 -3.4167614 -0.63109326 10
-24.664402 -7.7961693 -0.57298434 15
-6.2611442 55.67041 0.26544085 9
-0.067694187 40.495705 0.3093932 15
0.08412075 40.36557 0.45137498 15
20.36587 24.432268 0.76435149 6
23.519747 22.417294 0.82882082 7
16.139662 25.761883 0.5441761 3
15.222673 26.235199 0.65237725 5
-10.85874 41.417427 0.11045109 8
-14.79055 43.642509 0.047024146 5
13.608421 26.495611 0.49999213 5
-15.01804 43.386974 0.2105308 4
11.92585 27.195326 0.58115578 1
2.7452559 31.764778 0.41622931 7.3333335
2.2982717 31.871796 0.40796259 11.5
2.241219 31.898567 0.40689775 9
14.45038 23.426785 0.55747163 6.5
4.414784 29.293552 0.34015074 8
4.4753299 29.193447 0.51522815 33
4.3914561 29.263969 0.42671797 19
7.4888206 26.777851 0.38601899 3
7.407598 26.666679 0.51442349 5
7.6109805 26.323112 0.47278991 11.5
7.5965161 26.315792 0.47221425 8
16.164906 19.845335 0.63307583 15
20.038929 16.152004 0.57157815 18
-14.675119 36.180641 0.013418242 10
-14.853952 36.180637 0.1410501 6
15.52597 17.475914 0.54870594 3
19.310154 13.993894 0.54749542 31
19.057308 10.491862 0.66275251 15
19.04369 10.416037 0.52531719 10
18.781399 9.4679089 0.65278232 10
18.790993 9.3712463 0.51554501 10
-26.214926 29.982403 -0.081382349 6
-26.428993 30.009861 -0.23767886 8
-40.85128 36.443264 -0.47862366 12
-32.503326 30.226017 -0.16572723 32
18.920412 -0.29233932 0.55367827 5.5
15.016993 -2.9979115 0.46382937 15
14.712234 -4.0729237 0.53494906 10
12.095167 -4.7781029 0.47508165 20
-42.41555 23.926907 -0.56812155 9
-42.198399 22.921911 -0.56884837 9
-9.4391737 1.9591827 0.039605826 11
-9.674612 1.9760485 0.12797317 11
-42.991985 21.502779 -0.59060895 9
-9.4531488 1.6294594 0.13327913 5
-1.1517243 -11.651615 0.038906664 4
-38.852119 10.087358 -0.56733084 15
-42.173832 11.941907 -0.62103689 8
-6.1848702 -10.500998 -0.050427705 13
-12.592205 -12.034771 -0.0040480793 13
-25.916241 -5.3978424 -0.39780328 85
0.011686563 40.43528 0.5912025 11
20.739973 24.35202 0.92227161 29
15.101339 27.520985 0.78579617 6
27.726709 19.154602 1.0976657 5
12.154774 28.089195 0.7077955 3
-14.975176 43.551605 0.38323253 5
11.908052 26.943718 0.68768632 14
2.7008948 31.736664 0.65371859 7.5
2.2854557 31.849325 0.64533603 11.5
14.316532 23.728407 0.72524858 12
14.390505 23.471556 0.83747411 7
4.4132447 29.250011 0.64529073 26
7.4319224 26.729805 0.69067574 5
7.5934911 26.312733 0.73160982 13
7.572927 26.365992 0.64537001 16
15.711748 17.641178 0.72314429 3
-15.936522 35.250656 0.37465873 9
-16.801884 34.581573 0.35416478 51
19.028791 10.400349 0.79899752 11
22.729912 7.1650476 0.90572071 4
18.739643 9.4668188 0.7889322 11
-22.186481 31.972488 0.13182175 3
21.264795 5.4692202 0.86150181 13
18.842613 -0.74395561 0.7990551 14
-0.69497061 9.3801718 0.46646735 0
15.003864 -2.9967995 0.70021427 13
-42.994167 23.466763 -0.34913042 8
7.2099919 -7.8720741 0.52482796 27
-9.4337864 1.6078014 0.27390569 17.5
15.506435 -20.189709 0.54921174 18
-39.14323 10.282596 -0.36233321 6
-42.849731 12.143581 -0.40349576 8
-30.704781 0.94530773 -0.09365961 5
-30.477468 0.18894196 -0.090767205 5
-29.682858 -1.2554092 -0.08132121 5
-29.406364 -2.1446419 -0.07702139 17
0.22584796 -31.012405 0.24984401 11
-18.720602 56.267155 0.52731347 9
-0.079250813 40.486549 0.8709029 19
0.0021443367 40.417427 0.73073709 13
24.441257 25.530312 1.2144562 11
-22.421463 52.236916 0.41314027 8
2.3601785 31.749893 0.78735852 12
14.429438 23.456024 1.0077219 5.5
4.4256682 29.228973 0.77625394 25
7.4876151 26.434765 0.81695092 11
-16.053892 35.141788 0.50103998 33
-16.732161 34.620369 0.48482668 90
19.338779 11.387022 1.0161617 16.5
19.06344 10.483246 0.93712842 21
19.034933 10.412981 1.0730414 15
18.789698 9.2876778 1.0650713 3
18.784678 9.4509468 0.92734385 10
21.348455 5.3352137 1.0235819 3
15.093204 -2.9504299 0.86010242 13
12.508417 -3.7955532 0.78876555 3
13.510143 -9.8486729 0.87401772 4
-48.020664 26.106869 -0.13511303 11
-47.072842 24.965418 -0.13618401 10
-9.4595318 1.6175137 0.41406772 17
-47.985802 23.388252 -0.15359351 11
-7.0750313 -3.2540379 0.49568662 7
-14.875607 -0.56481934 0.43060461 12
-14.97123 -0.71426964 0.31255698 4
15.376141 -20.195175 0.79023981 18
-30.678679 0.83532429 0.088559836 8
-30.492287 0.18109512 0.092007488 9
-29.63143 -1.3523331 0.10290238 9
-29.351639 -2.2476387 0.10897908 13
-31.967455 -7.8882027 -0.087811738 7
-16.155252 -28.965324 0.22349051 25
34.996021 21.521694 1.5598326 13
28.720196 24.226652 1.5485227 18
-21.554184 53.332687 0.67898774 7
29.497303 23.082302 1.5697795 13
-22.515648 52.406178 0.64958322 7
-23.319477 50.393021 0.60083187 6
2.4633551 31.694544 0.97821689 7
14.401226 23.694153 1.2926728 2
4.3879857 29.266636 0.95072997 17
7.5762725 26.435009 0.99446762 6
-16.114536 35.088371 0.62931371 37
-16.792984 34.568073 0.61298567 108
19.053183 10.487558 1.2111088 20
-25.018332 34.432167 0.45722833 4
19.72543 -0.28647041 1.1587174 13
15.082172 -2.94664 1.1755518 15
15.014103 -3.0084438 1.015741 12
12.455101 -3.596035 1.0861828 3
12.377289 -3.776495 0.9354254 3
12.070236 -4.7540874 0.9384551 11
-47.768105 25.737099 0.12589249 8
7.254662 -7.8013573 0.83566499 96
-47.494946 23.931046 0.11190638 8
3.6398606 -12.629652 0.82105398 4
15.492599 -20.120518 1.0329174 15
-9.4392014 -11.185577 0.54585147 30
-30.699629 0.82421112 0.27053401 16
11.257748 -24.151283 0.96576703 8
-29.63855 -1.3624325 0.28655997 11
-12.427935 -12.166655 0.52419162 4
-19.284609 56.057678 1.00906 9
-20.015533 55.504723 0.98714292 9
35.074627 21.400572 1.7890235 17
-21.439802 54.044533 0.9358027 9
28.691257 24.345104 1.7428206 18
29.427715 23.182568 1.7648582 13
-0.24620223 40.562943 1.2921426 13
24.43392 25.544594 1.5581251 13
-22.004627 52.621529 0.89441574 9
-22.748354 51.355061 0.85636437 9
-23.634478 50.408386 0.82619071 8
4.3975101 29.288124 1.2150731 6
7.6152816 26.479088 1.2603828 2
-15.997286 35.177185 0.89147079 23
-16.6623 34.644196 0.87393963 44
19.074425 10.559999 1.4861573 15
18.770569 9.449522 1.4759203 9
20.970421 -4.6642456 1.4372629 11
15.346649 -20.18964 1.2699077 19
-29.401701 -2.0059509 0.47733209 16
5.5724645 -31.657547 0.91914833 10
2.6813269 -31.936859 0.86878073 10
-0.308321 -30.703609 0.79168093 19
-44.307709 -5.8140774 0.064039022 9
-15.503773 -29.063042 0.50878406 9
-18.237825 57.060078 1.0468099 10
34.999916 21.527954 2.0145142 18
19.865492 27.089661 1.6710415 10
-23.076674 51.638741 1.0945665 9
14.402588 23.626476 1.6311715 1
-54.262226 54.80994 0.46333525 21
-25.123762 34.383545 0.94269955 4
15.082443 -2.9546413 1.491392 11
12.543013 -3.5653477 1.3909347 3
12.127348 -4.6692677 1.4029766 11
-48.686718 25.425991 0.38839856 10
-48.599762 24.444027 0.37918589 10
-7.4716768 -18.761265 0.92141449 14
-8.8200073 -19.418777 0.91671038 15
-40.06464 -2.6486435 0.54727077 9
-15.711662 -29.187557 0.78265941 11
28.795235 24.471781 2.1384871 11
29.586369 23.092968 2.166328 6
28.504112 23.579247 2.109015 17
3.943347 37.634346 1.6738225 2
14.606678 28.837688 1.8116618 4
13.308321 29.025105 1.7322683 14
19.412846 11.660188 1.9145347 13
19.021816 10.408381 1.8962783 18
-48.905392 25.294523 0.65664482 11
15.445179 -20.112209 1.5125563 20
-40.921791 -1.9518795 0.54737711 10
-12.353516 -26.701767 1.0415637 10
3.6511445 -36.449635 1.2572749 17
-15.552109 -29.212006 1.0613074 11
30.757473 27.66626 2.303158 7
29.695175 26.0599 2.2150147 12
0.24915957 43.427124 1.9080777 77
35.016151 21.522058 2.4697452 16
18.465986 27.693798 2.0403316 8
17.638304 27.839352 1.9863545 8
18.689032 26.944412 2.0337307 5
-30.417515 43.572464 1.2991976 7
-0.59397125 9.5745068 1.5527306 57
-0.8682375 9.2324047 1.5844828 78
15.090437 -2.9746113 1.9673554 14
12.864189 -3.5381832 1.860991 3
12.079729 -4.9543991 1.8761612 3
-32.389053 -4.1563892 0.93008268 6
-7.0412188 -19.274872 1.3601949 6
3.6441493 -36.443027 1.5694888 18
12.177809 29.710388 2.1687784 4
-33.104317 43.140736 1.3135916 8
15.490892 -20.157112 1.9992661 18
15.093876 -21.331703 2.0210688 18
-25.485666 57.651112 1.8060536 10
29.459328 25.136442 2.7867374 11
10.551262 35.723045 2.4332325 18
11.833633 34.416901 2.4338834 6
10.542061 34.904152 2.3754215 6
29.506229 23.082714 2.7540481 11
28.505932 23.590996 2.6864624 10
14.444235 30.452213 2.3979895 8
14.421701 29.742088 2.358027 8
17.484989 27.386372 2.5180662 6
16.3895 27.907135 2.440999 8
15.547789 28.428242 2.3898754 5
-53.454815 54.173153 1.1837701 30
19.036562 10.386057 2.4498355 15
20.797436 -4.6994534 2.3771565 10
-30.861738 -0.56276894 1.4046122 10
-29.266243 -4.4681511 1.474103 10
-1.8758965 69.714577 2.5806503 17
30.304947 27.922588 2.9093065 12
5.0275054 42.039131 2.6081185 4
1.9369302 42.784195 2.5443339 11
19.211424 26.893463 2.6582632 7
32.166283 17.642008 2.8976452 18
-11.451556 40.488754 2.1446218 10
-7.6757622 -19.299423 1.9838506 19
0.32091737 -34.816883 2.0576098 14
35.004654 21.525827 3.1525831 22
15.089281 -2.9889603 2.6036277 12
14.447176 -5.0255451 2.6706281 13
-30.656019 -14.496027 1.866887 8
-54.206444 54.189442 1.9199957 30
16.528118 -20.605083 2.7935927 25
15.319593 -20.197735 2.7185085 16
-30.399885 -15.536209 1.9032444 16
-52.661465 -75.014702 1.1823061 28
-4.6543002 61.310513 2.927191 27
-12.502424 48.988422 2.8553512 6
28.754524 24.461611 3.5035267 12
29.40015 23.175234 3.5384965 12
28.518101 23.699181 3.4625375 17
3.497191 37.370201 3.0607727 7
2.9261012 37.097698 2.9945831 10
1.9560518 37.239052 2.9594278 10
15.200504 29.056047 3.3233705 11
15.831713 28.148705 3.3377409 7
28.539536 18.658218 3.3827796 11
7.6915288 26.560665 3.1494474 2
20.437859 -4.5580692 3.1018457 11
-28.457928 -4.0787888 2.194726 5
-15.783764 -29.350582 2.4462299 10
29.700375 26.062134 3.6370993 13
14.951958 30.140259 3.3745925 12
17.466925 27.108614 3.4796112 4
16.23576 27.739113 3.3614311 8
32.187862 17.632771 3.7408862 13
-19.703167 34.897774 2.8959494 9
-20.282572 34.276577 2.8732748 13
18.996128 10.310704 3.4186163 12
-33.773849 35.438999 2.5464101 6
-34.07843 33.34692 2.4655337 6
-34.857666 32.384888 2.4657671 6
-7.4777493 -19.680489 2.860018 14
-5.9137592 55.586079 3.4593952 16
-11.272434 40.438034 3.1681843 4
-24.659094 31.733656 2.976557 5
-41.274826 21.66754 2.5372553 7
-8.827179 -20.135315 2.8825364 14
9.2748909 40.124779 3.7840381 10
15.017729 -3.0787926 3.7226367 16
19.248751 -16.440228 3.6859894 17
18.054752 -16.201466 3.5934069 16
17.647524 -17.366158 3.6416292 17
15.471886 -20.190563 3.6974015 18
-42.774971 8.7891369 2.6051064 8
16.233271 37.211014 4.1245065 12
-31.883818 50.452328 3.3525853 10
-32.81625 49.419987 3.3157401 10
14.45455 -4.9051552 3.824183 11
21.612461 -17.513138 3.9097147 19
-3.7562895 62.701248 4.1103415 11
-5.1476254 61.228237 3.9585686 11
-16.065844 44.600502 3.7847955 13
1.7038565 37.245514 4.2202334 12
28.395733 18.531746 4.6941786 14
-70.341057 17.851393 2.7576413 28
-15.426693 -29.217331 3.5469692 12
28.585812 24.785759 4.8696327 15
29.708416 22.630062 4.9594378 24
28.370724 23.325823 4.7922692 7
29.505291 17.905613 4.8447056 15
-17.522198 35.048538 4.1537948 9
-33.527428 33.158455 3.8294308 16
-33.312016 1.7263374 3.5633118 7
-31.838627 -1.3021927 3.602885 7
-0.099248648 -34.546654 4.1357851 16
30.025612 27.702236 5.1813526 8
15.411455 30.481438 4.8673615 9
16.067669 29.534636 4.8759055 14
8.5109634 27.526964 4.809629 1
-18.244589 35.18095 4.2398467 14
19.376675 11.464375 4.8559208 14
18.796408 9.405015 4.8308043 9
-34.789799 32.323261 3.8903735 8
-27.877279 -8.1276684 3.796443 8
-27.958208 -9.6358566 3.9285936 8
30.73119 28.869009 5.3289628 9
17.427233 28.700939 5.0302877 14
-20.465044 35.459633 4.4971461 5
-58.043621 14.013998 3.5292597 20
5.3853068 98.331924 5.480125 28
3.6505175 98.266975 5.4331646 28
30.946129 30.884542 5.4562821 9
13.14398 37.691479 5.4741969 5
-21.555998 52.482983 4.881495 11
-23.284691 51.867447 4.8776574 11
-10.413595 42.562996 5.0126996 5
-10.902445 42.212082 4.9630532 11
-22.115786 35.513611 4.6779914 5
-40.60635 32.749218 4.4502835 11
15.120785 -2.9585533 5.3437939 11
18.07966 -16.300262 5.2264748 21
17.722521 -17.297958 5.2936091 22
-43.448059 9.5140038 4.2960391 11
-43.437317 8.3661985 4.3160911 12
-15.666279 42.396023 5.2064128 6
14.394539 -5.3508244 5.5561652 6
21.124435 -17.436039 5.6076188 14
17.414745 -19.562099 5.4942579 14
15.381079 -20.428833 5.4235816 14
-30.371693 -15.227921 4.5666838 13
14.828817 -23.806744 5.739131 19
-0.42139292 64.772781 6.3504252 25
-3.2781258 65.668594 6.3969355 27
3.2409201 38.518639 6.5326419 5
-47.119392 -7.5344906 5.2855253 28
30.137234 24.307957 7.1453943 9
-17.395515 35.917595 6.2969427 6
19.568396 11.667675 6.9373174 6
18.848858 9.635253 6.8632731 9
30.443134 25.376862 7.2567506 19
-34.955441 33.916786 6.1247973 9
31.513363 28.867859 7.6660981 10
6.8096805 40.257523 7.3889809 7
7.6083341 39.432236 7.2913504 3
15.03673 -3.0582275 7.6790566 12
14.281647 -5.4337196 7.9960976 4
17.802446 -22.802879 8.5332737 20
16.393606 -23.522247 8.4990425 20
20.974787 -4.8405724 9.2714224 12
-49.502293 -4.8163319 8.3588333 27
-46.263077 -9.2231102 8.2580957 27
-47.13438 -11.640003 8.5982199 27
-8.8367271 108.91895 17.341843 41
125.27417 -6.4342766 0.68662965 28
28.152195 11.965221 -0.47709048 5
18.650906 20.418974 -0.51993066 3
19.114475 13.556636 -0.57466412 3
20.530666 24.422314 -0.29545105 3
21.950844 20.598831 -0.30916137 7
19.704144 20.011353 -0.4105258 2
18.644081 21.236122 -0.38777983 4
18.393738 20.860214 -0.51364255 3
16.122646 22.055664 -0.45579422 9
14.295758 23.674789 -0.42200828 5
18.440121 19.282015 -0.51324201 3
16.086765 21.60372 -0.45197856 6
15.067243 22.422132 -0.42973864 5
13.360808 22.778027 -0.49423099 4
21.010338 14.613115 -0.47028208 2
13.915372 21.213009 -0.496746 4
20.810143 14.023289 -0.47217774 2
14.117366 20.410793 -0.49859446 6
21.527073 13.313755 -0.49734294 3
10.575169 23.661612 -0.51592499 4
14.135066 18.110014 -0.4961558 6
12.207425 18.723783 -0.52377498 4
14.568877 15.566082 -0.52750438 6
14.276526 14.043462 -0.53680795 6
12.443591 14.636499 -0.5618552 4
16.73341 9.5551596 -0.45576882 2
16.752834 8.64573 -0.47677624 2
15.414214 6.4736567 -0.50753725 2
13.260755 6.1074543 -0.59963572 2
12.332173 5.2935696 -0.60939503 2
15.794398 1.9272614 -0.51245844 6
13.365134 3.83918 -0.55715847 2
12.034291 4.6575317 -0.62748551 2
12.59275 -3.2880459 -0.67310071 3
6.8474932 1.8543348 -0.78761059 4
7.5564833 0.28343773 -0.76214612 2
7.7294292 -1.5506096 -0.85489178 6
8.228302 -2.4711723 -0.77090824 6
9.9348745 -7.9087944 -0.858711 8
-7.0156517 -7.9919968 -1.1144931 6
17.153393 25.676159 -0.12039368 3
12.382405 28.664757 -0.23443876 2
5.224679 35.461567 -0.38056618 4
-5.5392051 45.605053 -0.55695891 4
5.6896029 34.639381 -0.3540439 14
11.415591 28.455185 -0.33405769 3
9.8357801 29.990036 -0.35097212 3
11.826644 28.007668 -0.33056253 4
9.2669258 30.08075 -0.34755987 3
8.3380289 30.885239 -0.36169982 3
12.245992 27.002937 -0.31759387 1
-7.695015 45.161118 -0.60264575 4
14.298787 23.833075 -0.31004936 7
-0.49050117 37.918304 -0.52136552 4
16.094475 21.913776 -0.2126395 4
14.554284 23.385303 -0.25362802 2.5
8.6365108 29.012259 -0.41532016 4
7.7300844 29.902592 -0.43125248 4
-8.741024 45.405712 -0.63683844 4
16.083366 21.613905 -0.3318665 5
0.96144724 35.841545 -0.43048781 6
-9.4633121 45.442951 -0.65810668 4
-0.60968637 36.324715 -0.58502936 3
-5.168488 40.347073 -0.56561589 3
3.0088 32.002506 -0.48280835 4
0.072282791 34.651657 -0.6161896 7
-0.65021658 35.276169 -0.6534335 5
8.929142 25.945377 -0.42939067 3
7.5616751 27.001122 -0.42989278 3
0.43561983 33.805992 -0.47248006 2
5.1568317 28.998678 -0.46305871 3
2.4064198 31.623642 -0.46819669 19
-6.3400097 39.772461 -0.57953823 6
7.6302013 26.302082 -0.40951514 5
1.0129147 32.59586 -0.51645869 4
0.84089231 32.599144 -0.61399078 5
0.40047407 32.312328 -0.60276729 5
1.5487852 31.128572 -0.62916881 3
14.698976 18.158722 -0.29761225 7
14.609117 18.084366 -0.40423733 7
-0.71755886 32.667732 -0.63104904 5
-5.4416871 37.158211 -0.60038364 4
14.665381 17.635691 -0.35314202 12.5
-1.3128867 32.835609 -0.64702439 1
-5.16961 35.169258 -0.63253355 2
-4.6875 34.549606 -0.69864023 2
-1.8721766 31.454515 -0.67077118 1
1.219924 27.615913 -0.65422279 3
1.8111224 26.980526 -0.62115103 5
-1.8784158 30.053219 -0.66918242 2
-4.59934 32.329304 -0.68476623 3
18.660225 10.158587 -0.20892106 9
1.7060409 25.88414 -0.67454326 3
-2.047338 28.206631 -0.69065547 3
-4.790205 30.803787 -0.69263935 2
17.883041 8.9005241 -0.3582117 5
12.821551 13.669425 -0.39348781 2
12.446954 13.439925 -0.48442549 6
12.50143 13.31348 -0.39040816 4
1.0973144 24.010653 -0.64993733 6
-4.6229801 29.480663 -0.68591464 2
-2.3580632 27.019163 -0.7264834 1
-4.306448 27.838514 -0.70237792 1
-2.7398059 25.199566 -0.69523567 2
-4.2314482 26.582422 -0.72024542 1
-4.2243319 24.957203 -0.69561398 1
7.0837822 13.78285 -0.56650138 5
6.9736633 13.442808 -0.50330025 2.5
-3.1400285 22.780975 -0.74347019 0
5.1129313 13.629772 -0.57620865 4
-3.2906032 21.472517 -0.75889361 1
5.0302467 13.337059 -0.58222842 2
3.8644414 13.115804 -0.5811379 1.5
15.990043 1.2956972 -0.38669628 7
3.654017 12.767942 -0.58503711 5
2.545671 12.183228 -0.60806429 3
2.3424945 11.92326 -0.61357772 2
2.1155629 11.92465 -0.75252342 2
0.81006002 12.980764 -0.73618233 1
-1.3769422 14.678373 -0.76547313 1
0.9623313 10.826118 -0.62814832 2
0.67269897 10.628727 -0.63355047 2
0.075309277 9.1240778 -0.75986063 7
-0.43433833 9.1432409 -0.74540657 7
-0.93221545 9.3563232 -0.71315563 3
8.075388 -0.57386971 -0.68467581 5
12.248223 -4.6702442 -0.56867033 3
-0.6319232 6.8665352 -0.710729 3
-0.94878578 6.7864151 -0.71695513 4
8.2521887 -2.4996872 -0.63864565 5
-0.73551297 4.7622194 -0.66934758 1
-0.81648898 4.7169113 -0.74611413 2
5.4900541 -1.6266842 -0.61024153 4
2.0663242 1.131916 -0.7573927 4
-5.8519793 7.3702345 -0.87186241 6
-5.6354346 5.6001043 -0.90344656 4
-5.2424765 3.9381313 -0.88547039 3
-4.6779909 2.5192366 -0.89394343 3
1.3788009 -5.6767254 -0.69414115 6
-6.9447298 1.8495016 -0.92228305 5
-0.43759251 -4.9674988 -0.82395589 7
-2.5653474 -4.2808533 -0.95515847 3
-13.100504 5.7481699 -0.98456204 4
-2.6400247 -4.351757 -0.83667904 7
-9.6365967 1.8939934 -0.93009484 12
-6.678884 -1.4708138 -1.0178084 7
-4.1197152 -4.051712 -0.97743547 5
-4.4857049 -3.7723484 -0.85139143 4
-5.8829851 -3.3029327 -0.98357177 4
-5.6971974 -3.650713 -0.87456417 4
1.9907842 -12.138481 -0.7741738 4
-7.6651659 -2.9290028 -0.95575273 4
-14.048901 3.1079693 -1.0796273 11
-7.0297289 -3.8881359 -1.0452303 5
-3.7243149 -7.1935139 -0.99481952 3
-9.5408897 -2.3946266 -0.93359196 6
-14.496481 1.9561119 -1.0538584 8
-13.301636 -1.0903358 -1.0200329 6
-13.643072 -0.84022903 -1.0239002 4
-3.67628 -10.734522 -0.83914089 12
-14.958871 -0.29631805 -1.0592119 2
-15.50061 -0.21683693 -1.0807015 4
-14.872263 -1.5367203 -1.106349 7
-8.7221279 -10.062124 -1.1050835 4
-6.0216808 48.268211 -0.44551396 5
23.737034 19.86829 0.14620467 99
4.0137701 37.896858 -0.33322513 9
5.4182854 36.153557 -0.27539283 30
3.4581132 37.743393 -0.33535123 8
-7.41364 47.905674 -0.47449821 5
2.1373172 38.462971 -0.37126243 6
-0.060957909 40.459976 -0.32141721 6
15.3606 25.646645 0.019318774 2
7.7773113 32.734303 -0.18298854 11
13.675244 26.887325 -0.10274221 2
12.238702 28.2841 -0.11089014 2
12.809894 27.102531 -0.099211738 2
1.2826672 37.908691 -0.368218 8
11.958389 27.200691 -0.094992116 2
0.32980442 38.14883 -0.38959575 8
16.127575 21.690979 0.028308377 4
16.077141 21.741949 -0.091604039 7
2.7918749 31.810741 -0.3794558 2
2.7131934 31.800903 -0.2836619 3
2.2558298 31.87262 -0.33665884 13
7.4591522 26.868608 -0.1573766 2
7.5826235 26.343056 -0.23525392 13
7.3027763 26.577473 -0.28074032 8.5
4.511158 29.153818 -0.33169168 16
4.4073124 29.243851 -0.2031136 26
-6.9604836 38.978363 -0.57399905 5
14.639644 18.143656 -0.078669801 6
14.529872 17.961132 -0.18606181 61
-10.642208 41.654716 -0.60978937 7
-7.9847021 38.556328 -0.59149194 5
19.28252 11.364588 -0.058013842 15
-8.7550583 37.806156 -0.59389186 5
-10.177374 37.602097 -0.63387549 5
18.667427 10.163247 -0.071570262 6
22.096962 5.5750389 0.0047518164 8
18.354561 9.1423311 -0.085699841 3
12.492642 13.68488 -0.23731928 5.5
12.501836 13.264115 -0.293073 1
-12.531033 35.713959 -0.66739208 5
-14.575005 36.299347 -0.63215935 5
20.146873 2.7329807 -0.047908083 12
7.0396795 13.834362 -0.32898897 5.5
7.0483303 13.791659 -0.33007354 5
6.9747992 13.425731 -0.30276644 2.3333333
5.1732473 13.718451 -0.37903345 1.5
5.074193 13.682675 -0.34740931 9
5.0053501 13.316553 -0.38397133 2
19.406727 -0.5681572 -0.11419357 8
4.9760132 13.291451 -0.35525727 3
16.497532 1.2560148 -0.24040489 7
3.8746495 13.125718 -0.36661404 5
3.6871395 12.730026 -0.37418771 3.5
2.6052747 12.239287 -0.39886022 2
2.5659456 12.229589 -0.49133253 4
2.3173776 11.859949 -0.45447385 3
-20.668236 31.731758 -0.80860585 5
0.94603205 10.898571 -0.46496433 6
0.61937332 10.686544 -0.47105175 5.5
-20.84639 30.675808 -0.80342674 2
-21.246986 30.028471 -0.81428885 2
13.807965 -3.8937855 -0.22236882 11
-0.044006348 9.2684078 -0.51961601 6
-0.060063601 9.2333784 -0.62229079 1
12.971257 -3.6336403 -0.3779465 11
-0.40215755 9.1276064 -0.57604116 5.5
-0.77338982 9.3892365 -0.54867804 13
12.429002 -3.5429401 -0.22526561 63
-21.767006 28.739122 -0.82504165 2
-21.792904 27.970993 -0.81903297 2
-0.63045597 6.9332495 -0.55226773 4.5
-0.75739312 6.9880753 -0.45780265 11
-1.0154603 6.7916832 -0.53272694 2.3333333
8.378293 -2.4431477 -0.50290734 6
-20.160965 23.464655 -0.80928957 2
-0.82920551 4.726553 -0.56269121 3
5.6888552 -1.739893 -0.49229521 5
-23.061012 25.507889 -0.86277515 2
2.1497507 1.0171852 -0.61555231 1
2.0132365 1.2086201 -0.50912613 4
-18.727486 20.369707 -0.8030538 4
-14.931006 14.551086 -0.85141367 1
-23.806343 23.004059 -0.8903594 2
-17.598366 17.013083 -0.81491262 2
-19.060627 18.398706 -0.82321966 4
-23.948921 22.303074 -0.89640152 2
-18.993973 16.871824 -0.82541788 4
-16.986193 14.361366 -0.87716556 1
3.9330387 -6.4322701 -0.54693919 6
-17.704014 14.073264 -0.85385621 1
-19.288589 13.587613 -0.87915325 1
-0.28117728 -4.9670486 -0.69217277 8
-0.51188278 -4.9608898 -0.56752706 5
-2.4821858 -4.3745518 -0.70984817 5
-21.208298 13.503159 -0.89938259 2
-2.9297645 -4.4174461 -0.72118771 2
-9.6367836 1.8749332 -0.83789861 21
-4.5434313 -3.7123051 -0.72934115 7
-6.6403747 -3.1238651 -0.76041996 7
2.3481727 -11.838085 -0.58626533 4
-7.8862629 -2.8975143 -0.78531075 5
-9.5415888 -2.3256493 -0.81427807 7
-25.184959 12.500244 -1.0151099 2
-1.0930882 -10.481062 -0.61388141 12
-13.382116 -0.90634918 -0.89864492 7
-25.274994 10.033595 -1.0536958 2
-3.7845469 -10.748692 -0.68161458 12
-14.998857 -0.33543968 -0.94376028 2
-25.823265 9.1801052 -1.0949055 2
-18.231962 1.7887993 -1.0163862 5
-5.7560673 -11.257076 -0.74459159 4
-25.806427 6.9878139 -1.1318207 3
-7.4100714 -11.107489 -0.7794711 4
-25.932053 5.4254284 -1.16789 3
-25.844357 3.9798307 -1.1932648 3
-25.570835 2.4662905 -1.213256 3
-27.406498 3.7092047 -1.1178025 3
-28.120438 4.2833462 -1.138954 3
-23.751282 5.7220459e-06 -1.1878103 3
-25.227962 1.1558504 -1.2274309 3
-21.42297 -2.6559925 -1.1563305 3
-24.399578 0.17279053 -1.2130151 3
-22.891655 -1.4240341 -1.1863166 3
-22.611111 -2.0543041 -1.1909493 3
-27.113403 2.3449306 -1.1300725 3
-27.107155 0.62193489 -1.1630112 4
-27.162235 -0.66089821 -1.1911107 4
-26.225754 -5.4132271 -1.2561322 5
-28.810146 -5.5331726 -1.3623849 6
24.198673 21.422348 0.31737101 12
21.913319 23.57939 0.30950737 7
24.038952 20.501431 0.31287611 3
-8.3389597 49.064545 -0.32875264 10
-0.22045636 40.540886 -0.18611698 9
13.651542 26.810295 0.13436379 90
12.970647 27.04776 0.015512452 4
12.101644 27.703144 0.010629609 2
11.959932 27.134068 0.071734145 1.5
16.88245 22.105309 0.14979644 4
14.507592 23.396709 0.09003152 8.5
-9.5962925 45.44495 -0.32224441 8
2.7127485 31.771454 -0.13989089 9.5
2.2969284 31.824234 -0.098094583 14
2.2223721 31.914112 -0.1957293 8
7.4308901 26.757874 -0.022819206 8
7.5698729 26.326883 -0.016933307 14.5
4.3809071 29.284462 -0.029629543 8
4.4113169 29.233534 -0.11566563 30
-10.49075 42.395817 -0.31394416 6
14.580783 18.080355 0.03001307 12
14.536353 17.826862 0.1373188 10
19.397243 11.686445 0.22442289 11
19.322189 11.443703 0.082354203 18
-11.840506 39.87833 -0.46748608 6
-12.485307 40.159805 -0.49179375 6
-14.17026 41.758602 -0.41283619 3
18.997417 9.9927444 0.20369484 5
22.531185 5.5111389 0.17218997 8
18.738647 9.2891865 0.1938266 5
-15.088746 41.293129 -0.43597686 3
20.917068 4.9484234 0.15284045 18
9.4357996 13.34068 -0.14291696 6
-14.700405 36.34483 -0.50776529 22
19.818832 2.8207588 0.11329444 7
7.0659695 13.743133 -0.16479434 3
6.9815397 13.523772 -0.16722293 4
19.22229 1.4937868 0.08756195 7
5.0726404 13.639006 -0.23644428 7
19.487022 -0.35978699 0.059560522 12
5.021244 13.408909 -0.21281497 3.5
3.8552728 13.084274 -0.24048947 3.5
3.7044234 12.804289 -0.24507777 3.5
2.5349288 12.171997 -0.25884479 7.3333335
2.3570075 12.050978 -0.25887197 8.666667
0.95573997 10.835901 -0.28814721 1.3333334
0.67309618 10.643421 -0.294384 2.3333333
-0.013665676 9.2475967 -0.39648944 2.5
-0.12220263 9.2100468 -0.29820573 4
-0.21084285 9.0616035 -0.23096626 0
-0.3756814 9.1348629 -0.35161287 6
-0.77920675 9.41082 -0.35758841 1
-23.214191 30.776119 -0.6371907 8
12.504493 -3.4891148 -0.071119651 67
-0.7920928 9.3650818 -0.40795553 2
-22.991455 29.940422 -0.76009858 2
-23.098614 29.241243 -0.7600736 2
-0.73279476 6.9239025 -0.37043059 8
-0.97092724 6.7778578 -0.38027942 3.5
-23.71571 28.234268 -0.7808134 2
-0.79204631 4.7676659 -0.45082158 6
-24.634365 26.480133 -0.81341314 2
-24.840622 25.875938 -0.82066137 2
-27.806751 27.946556 -0.80596864 3
-20.545502 20.757051 -0.8193239 1
-25.133633 25.057842 -0.83175325 2
-25.374908 24.644295 -0.8418507 2
-28.064285 27.074127 -0.8154223 3
-20.707436 19.887125 -0.82794321 1
-25.117744 23.814138 -0.82919669 2
-28.143627 26.320286 -0.8183825 3
-23.712513 21.500771 -0.88360322 2
-25.552044 23.299789 -0.84859961 2
-25.395237 22.610191 -0.8414669 2
13.448647 -14.501129 -0.080303311 48
-23.84169 20.815847 -0.89039612 2
-25.448441 22.065435 -0.84423023 2
-20.770676 17.069971 -0.84003162 1
-27.803921 23.429338 -0.80736107 3
-24.059727 19.351721 -0.9042331 2
2.600287 -6.0915871 -0.41539484 9
-26.021473 20.69117 -0.87281454 2
-28.206158 22.4648 -0.82550484 3
-25.828979 19.414612 -0.8677727 2
-25.482288 18.770384 -0.85427499 2
-24.362915 17.324173 -0.92865288 2
-25.430447 18.313643 -0.85394841 2
-28.871754 20.912806 -0.85700029 3
-9.584362 1.895196 -0.55577171 19
-25.734169 17.197309 -0.87408447 2
-4.5589876 -3.7825165 -0.55272543 4
-28.818508 19.412325 -0.8609674 3
-28.756962 18.712856 -0.86185193 3
-7.9860764 -3.0253258 -0.67558157 2
-29.462521 17.34444 -0.89812648 3
-26.710945 11.939888 -0.96516335 2
-13.374043 -0.89951134 -0.72261882 6
-3.6978335 -10.760187 -0.51981473 11
-15.025838 -0.24904442 -0.82336354 2
-26.668949 10.949181 -0.9749037 2
-4.7580891 -10.622837 -0.54174012 3
-15.582566 -0.4580574 -0.7300657 2
-27.30476 9.7295914 -1.0194041 3
-6.2835717 -10.553457 -0.57444155 3
-7.4200559 -11.199757 -0.61817479 3
-27.247993 6.425849 -1.065009 3
-27.558441 6.8693323 -1.0718775 3
-32.359608 8.4063835 -1.0943576 4
-38.033802 10.005205 -1.1031452 6
-37.571716 9.0052185 -1.0960428 6
-31.02541 2.3997889 -1.1202415 4
-28.940887 -3.5518169 -1.1374677 10
24.853268 19.460365 0.4813689 31
24.030392 20.271086 0.47601479 8
0.31114578 40.20002 0.1061023 9
13.882699 26.781801 0.25413072 1
13.003863 27.085693 0.24632789 1
12.261912 27.165211 0.35193998 2
12.170751 27.205662 0.23903616 3
-9.2934771 46.179718 -0.14872919 13
14.498864 23.408468 0.26134843 10
-9.9814987 44.027157 -0.15543221 8
2.6987939 31.773407 0.050692454 12
2.2539973 31.886944 0.042591408 14
7.4513807 26.790386 0.15341572 6
7.5666456 26.33827 0.15732457 15.5
4.4065123 29.248833 0.10223056 28.5
-10.442129 42.282455 -0.15872882 7
14.532054 17.826077 0.2451856 11
-14.82032 45.356789 -0.2900539 4
19.390602 11.66062 0.36336011 13
-11.317837 40.775661 -0.17449839 10
-11.932725 39.89045 -0.18681575 6
19.006565 10.388317 0.34706765 16
-16.082325 43.537712 -0.31700432 4
22.324535 6.5189695 0.34818107 8
-16.749039 43.283451 -0.33468324 4
19.139332 9.1274815 0.33630121 10
20.852489 4.9444666 0.31243312 24
20.758961 4.1336145 0.30186456 12
-14.624836 36.388329 -0.24681486 8
-14.703783 36.328545 -0.37823761 40
-19.004993 32.761002 -0.4945001 6
-19.964941 32.422771 -0.52644622 7
-23.155891 31.065208 -0.49729407 6
-0.74049926 9.3794422 -0.193675 3.5
12.820262 -3.619421 0.084030226 11
-23.963284 30.827566 -0.52352905 6
-26.679527 30.0597 -0.61321801 11
12.538634 -9.5531197 -0.014721364 5
-30.078392 30.513662 -0.7262755 4
-32.013367 30.183495 -0.79166305 5
16.173203 -20.298323 0.11766402 18
-33.021091 21.405645 -0.85193431 4
-33.516079 19.614021 -0.87798584 4
-12.070617 -2.0626526 -0.41366398 5
-13.557495 -1.1107578 -0.55776703 1
-41.338932 24.997993 -0.90165031 7
-40.527344 22.712185 -0.89035571 7
-41.618549 20.622698 -0.93372631 7
-33.96693 6.6847324 -0.99434829 10
-39.288795 6.6302462 -0.96301746 7
-40.103424 7.2029047 -0.98190153 7
-28.884476 -3.7509346 -0.95095503 11
15.125815 26.274086 0.51296365 15
13.434855 26.601891 0.48369753 16
14.539504 23.405125 0.49067479 5
-9.5715342 45.355366 0.01789552 8
20.083267 16.361303 0.54837614 8
16.194424 19.386486 0.49932909 2
2.7069759 31.778 0.28921813 11
2.343369 31.780277 0.18692927 16
2.2113061 31.92588 0.27902919 4
7.4417334 26.772129 0.32973561 4.5
7.5838289 26.308937 0.33179861 12.5
4.4145212 29.247957 0.23315202 29
4.4084387 29.241407 0.3205018 31
19.342194 14.176374 0.52069247 24
15.475682 17.528328 0.47583467 5
-10.728178 41.919838 -0.01293014 10
-11.342149 40.828217 -0.029023066 9
19.335098 11.422946 0.50023729 8
-14.861961 43.459831 -0.11503567 4
19.049438 10.474194 0.48780483 8
-12.141059 39.94651 -0.049755335 9
18.769463 9.4291277 0.47444588 8
20.872227 4.9428911 0.47339231 90
-14.845277 35.975327 -0.1232581 7
19.197212 1.4800501 0.41098797 11
19.609474 -0.49533272 0.39936668 12
-26.839863 30.038208 -0.46462625 3
-9.486227 1.6973324 -0.18403693 11
2.1367793 -11.937315 -0.079397932 4
-3.6911757 -10.753864 -0.19742857 11
-5.0558205 -10.716637 -0.069425404 13
3.0887413 -30.962389 -0.0086905509 19
-26.152893 -5.3156853 -0.70362246 9
-28.938129 -3.0915871 -0.75738722 10
28.190865 20.142769 1.0886922 5
27.744499 19.096979 1.0685436 5
15.087363 27.543217 0.77154917 4
-0.014628887 40.416977 0.5158155 15
12.126653 28.154076 0.69416547 2
11.913858 26.962296 0.676727 6
14.28777 23.761909 0.71527386 11
14.479487 23.402414 0.71774113 2
14.327981 23.478365 0.600631 13
-9.5763054 45.358688 0.18679576 10
20.346626 16.274456 0.69398314 3
16.177689 19.893934 0.62055272 24
2.6911507 31.786278 0.47947401 6
2.5042849 31.687016 0.4734633 13.5
2.2526088 31.902355 0.42219883 9.5
7.5804272 26.350046 0.55004925 13
7.3736706 26.653393 0.54722303 7.6666665
4.3799887 29.277466 0.49466062 13.666667
16.78175 17.011295 0.73698097 3
15.607505 17.467327 0.59181708 2
19.325554 11.443327 0.77864105 15
-14.857096 43.691643 0.053782374 5
19.137455 10.810032 0.77004516 15
-12.069123 39.976639 0.094606876 7
19.010021 10.401088 0.62543851 18
18.773262 9.4459877 0.75306636 7
18.740059 9.4499035 0.61309826 11
21.138294 5.35812 0.64248246 13
20.930836 4.9306526 0.79558223 36
21.097176 4.5135326 0.63612616 14
-14.645209 36.380569 0.011915416 13
-14.870312 36.132874 0.13392134 10
19.693466 2.5454845 0.75188661 10
19.652813 -0.25715637 0.74180377 12
12.301221 -4.4339066 0.37509221 4
-24.801846 30.327827 -0.11794607 5
-26.412815 29.979038 -0.15059476 6
-26.526958 30.049072 -0.30387479 8
13.15812 -9.483984 0.36263499 5
12.512618 -9.6915684 0.34635159 5
-32.917061 30.962599 -0.44607878 6
16.049271 -20.36017 0.36003298 12
-9.4240913 1.8927746 0.09723562 2
-9.6989841 1.9060984 -0.0012002438 12
2.7309666 -12.223825 0.10352476 5
-42.044136 25.407555 -0.69307983 9
-41.244781 24.424685 -0.68084842 8
-4.6774445 -10.669235 0.099286765 7
-41.003815 22.780125 -0.68578744 8
-41.254902 22.022488 -0.69645202 8
-31.315144 3.2034874 -0.40908945 13
-31.21701 2.4175482 -0.41026306 4
-30.265869 0.37558174 -0.58034962 11
-30.402122 0.41335106 -0.40250856 14
-29.051334 -3.4750996 -0.57684737 12
-39.851604 6.4541264 -0.76354581 8
-48.45866 5.9596386 -0.96612155 16
-28.805847 -27.419527 -0.72435552 22
24.410698 25.483765 1.1931351 15
0.22579432 40.238194 0.65822548 11
14.304536 23.819775 0.83059645 6
22.887093 15.354118 1.0607015 4
14.447888 23.407808 0.88816786 4.5
2.6972384 31.773537 0.67032975 9
2.3675289 31.748495 0.75424743 13
2.203186 31.925102 0.65887547 3
7.4039116 26.748198 0.72522765 5
7.5561056 26.326618 0.72333312 13
7.4875145 26.410015 0.80939406 12
4.4053726 29.263046 0.75735629 28
4.4014606 29.240807 0.66937864 27
16.794518 16.916239 0.85809004 3
-14.940633 43.660954 0.38910669 5
19.001381 10.382604 0.90342236 11
18.765553 9.3321714 0.89216948 3
21.164383 5.3088856 0.96518338 4
-15.941189 35.245537 0.35785359 6
-16.8519 34.55822 0.33144861 82
18.902306 -0.36638641 0.88764298 4
-19.401878 33.190819 0.14297692 3
-20.049541 32.193977 0.11865939 3
-21.180923 31.644743 0.094382688 10
-22.185055 31.233526 0.074449584 7
-23.459118 30.963638 0.053125784 3
-24.454281 30.836555 0.037873313 4
-26.116138 30.136166 0.0067668408 8
-40.934902 36.47868 -0.35330719 9
15.439603 -20.116282 0.59017408 18
-9.4854956 1.6367693 0.23800045 12.5
